1510
182.641922	93.520279	28.800247
186.271179	93.472710	28.941280
189.808914	93.086334	28.114843
218.759460	92.081596	28.562693
155.877899	93.919868	29.033194
158.907852	93.053429	28.512943
181.035507	93.817360	28.992184
184.439041	93.512772	28.802334
187.805008	93.502640	28.951649
191.408936	94.007629	28.218321
220.583130	93.304420	28.479242
150.191208	95.514183	29.417780
153.574677	94.725304	28.583038
175.730469	95.391472	29.102816
178.733231	94.450630	28.508175
189.836182	94.448799	29.453386
222.443497	94.591225	28.576044
148.425385	96.250214	28.857552
151.722443	95.505058	28.578938
170.375824	96.860664	29.143826
173.475876	96.130600	28.623569
177.236023	94.897209	28.823614
191.179718	96.177322	28.620415
224.263840	95.831299	28.541555
143.376572	97.878288	29.147161
146.352188	97.063805	28.504360
168.290436	97.479713	28.822500
171.951126	96.499451	28.903725
189.838943	97.720055	29.376059
225.819901	97.366211	28.743505
141.374405	98.768738	28.937103
144.898224	97.197098	28.853655
163.119949	99.098091	29.085173
166.207123	98.445274	28.444273
188.563675	99.096176	29.157179
190.691040	98.035934	28.388676
227.266937	99.112869	29.069433
135.954041	101.326218	28.748508
139.092941	99.942131	28.470980
157.824905	100.473831	29.154316
160.849136	99.864876	28.607834
164.653397	98.531464	28.807758
187.017776	100.582390	28.878136
189.862061	98.589043	28.620832
137.055588	100.526764	28.814157
155.637146	101.389641	28.803030
159.331772	99.852478	28.884533
209.750183	101.718422	29.523483
213.211670	101.554314	29.348238
227.846786	100.918259	28.599255
132.330627	103.887299	28.678413
134.940964	102.024963	28.687317
150.353363	103.954056	28.657549
153.583176	102.219688	28.650595
185.583008	101.980461	28.759634
207.983810	102.871155	29.021667
211.450882	102.253624	28.443079
215.054276	102.580193	28.878134
229.165314	102.874817	29.022703
131.296951	104.528473	28.789122
133.349258	103.086456	28.736826
149.144730	104.434456	28.775770
151.637680	103.250572	28.411848
184.365173	103.605522	28.709564
206.118973	103.932076	28.850317
216.652542	104.178062	28.855803
146.985443	105.409790	29.120459
183.176285	105.394684	28.740164
204.370422	105.221657	28.868124
217.814529	105.073128	29.614725
229.706558	104.690208	28.586855
129.859390	105.775215	28.748510
145.079025	106.680382	29.060053
202.660080	106.816521	28.957851
217.007553	106.353668	28.623751
230.951141	106.702553	29.037962
128.380081	107.361885	28.613321
143.199173	107.838112	29.033911
182.099777	107.217796	28.863670
200.842163	108.006676	29.564651
217.862091	107.627548	29.576336
126.834023	108.913513	28.769653
141.452454	109.423027	29.123320
181.017380	109.147881	29.036530
202.000885	108.445190	28.269171
217.092667	108.961914	28.614992
231.229980	108.891815	28.809843
125.296959	110.566055	29.033672
139.713745	110.701012	29.575781
142.342987	110.410606	28.152676
200.440323	109.684830	28.552996
217.851257	110.242859	29.585514
124.157501	111.383636	29.653107
141.390457	111.556984	28.460964
180.562943	111.029091	28.542028
198.780930	111.321320	28.690094
216.982941	111.379044	28.722223
231.324692	111.400330	28.794823
124.630310	112.266533	28.394205
139.446320	112.775345	29.175776
179.209152	113.046204	28.985506
197.217606	112.801178	29.052820
217.688522	112.719666	29.750748
123.369499	114.255028	28.906826
138.534317	113.986450	29.460340
141.264557	113.987045	28.258299
195.703690	114.450554	29.310728
216.673996	113.646095	28.982172
231.329285	114.026917	28.799414
139.355225	115.252625	29.072771
178.706528	114.875435	28.496731
196.391190	115.359200	28.185219
215.123276	115.327492	28.744062
123.024673	116.553383	28.590788
138.499268	116.515823	29.467850
141.231659	116.533943	28.341747
177.501984	116.877754	29.038439
195.292984	116.596344	28.864088
213.543915	116.949287	28.438074
231.299240	116.536270	28.763111
121.798538	117.954506	29.753916
139.440109	117.770439	29.251116
142.146042	117.760895	28.051697
178.127274	117.750053	27.954063
193.722733	118.192619	29.693720
196.240967	117.731682	27.881462
211.648941	118.215981	27.998568
214.278748	117.876892	29.565487
123.020493	119.115303	28.597881
141.492508	118.991196	28.621185
177.145294	118.765152	28.659811
195.360825	119.047447	28.485764
213.217789	118.756187	29.333771
231.109467	118.795204	28.915884
122.239822	120.356201	29.583845
139.630844	119.896667	29.551300
143.126297	120.678322	28.472010
176.135315	120.755096	28.814156
193.731064	120.066353	29.556305
196.238464	120.282761	28.043356
211.306473	119.990219	28.890615
230.260574	120.813515	28.538214
123.441513	121.297287	28.967388
141.254227	121.176796	29.356583
144.894897	122.017418	28.341827
176.416534	121.742310	27.851419
195.358475	121.587921	28.832378
209.632797	121.613518	28.865339
230.589920	121.812408	29.459505
124.834892	123.221878	28.581133
142.987228	122.480843	29.221949
146.612289	123.229103	28.340715
175.427658	122.595764	28.621664
194.402573	123.013252	29.577169
197.230408	123.247467	28.540438
204.155106	123.245811	27.961853
207.865860	122.895317	28.752403
229.505890	122.915199	28.751844
124.100761	124.242477	29.614727
126.015106	124.186562	27.949059
144.660110	123.855553	29.239197
148.514969	124.608826	28.355738
174.323898	124.699501	28.739050
195.350021	123.752068	29.416670
198.951172	124.384064	28.569925
202.387634	124.301720	28.381884
206.002136	124.055824	28.921530
228.435242	124.087265	28.004969
125.221138	125.133125	28.972631
146.522720	125.078369	29.214720
150.316360	125.835548	28.396906
197.066299	125.019402	29.357140
200.651321	125.281982	29.015549
204.304214	125.116203	29.145729
228.845825	125.087830	28.863672
126.745178	127.081581	28.649799
148.269608	126.309540	29.225288
151.968140	127.077278	28.408030
173.195633	126.423592	28.794683
198.865479	126.162109	29.717649
202.419357	126.083107	29.612495
227.687515	126.770195	28.746841
125.904953	128.011093	29.687325
128.422928	128.414719	27.964079
150.168381	127.661438	29.274801
153.905289	128.303452	28.401354
171.969070	128.324860	28.429729
226.593201	128.444748	28.555460
126.865204	128.992188	29.363258
151.901367	128.874237	29.215271
155.753983	129.576889	28.389669
169.947205	129.861740	27.937372
226.921448	129.435577	29.524597
128.646896	130.301315	28.670780
153.706665	130.170502	29.152964
157.501450	130.817520	28.478689
161.020798	131.185242	28.183273
164.579681	131.269821	28.126526
168.098511	130.974960	28.319017
171.009232	129.892899	29.086205
225.744308	130.222641	28.839111
130.281570	132.193008	28.635494
155.547592	131.449509	29.175217
159.172668	131.899582	28.685087
162.778275	132.008636	28.490927
166.409470	131.884567	28.652266
169.655685	131.123505	29.278143
224.222198	132.275986	28.651230
129.514191	133.154129	29.596365
132.311707	133.507401	28.245028
157.391846	132.702377	29.253103
160.957947	132.944946	29.000528
164.750473	133.039536	29.054495
168.001694	132.491531	29.440033
222.850754	133.645828	28.185724
130.485260	133.972488	29.426682
133.970139	134.778610	28.161575
159.220505	133.822845	29.551857
162.950180	133.837326	29.427794
166.384995	133.643692	29.657003
223.923904	133.989731	29.539062
132.157593	135.319931	29.230295
135.706467	136.069321	28.037514
222.163589	135.178146	28.887753
133.935654	136.613419	29.036692
136.785187	136.907715	27.927361
220.550858	136.940552	28.717354
135.877670	138.155716	28.854490
218.896164	138.626328	28.553478
137.869492	139.716660	28.637243
217.000320	139.961990	28.122078
219.577820	139.604004	29.639759
136.054733	140.251846	29.665907
139.557968	141.024048	28.475906
216.019501	140.771454	28.019987
218.703262	140.389267	29.437250
137.724854	141.555893	29.481760
141.286499	142.341995	28.340162
216.754120	141.650070	28.938776
139.394974	142.848816	29.322647
142.962173	143.603210	28.219988
214.960251	143.234360	28.820829
141.090118	144.145630	29.189127
144.767502	144.963455	28.129866
213.268997	144.495010	28.639463
142.880966	145.512558	29.050041
146.544968	146.271942	28.050865
211.581635	146.111557	28.700346
144.634995	147.160172	28.998859
148.322464	147.583221	28.058096
209.485367	147.344559	28.468115
143.983612	148.399658	29.685656
146.631760	148.365997	28.771875
150.184525	148.886154	28.084246
207.640549	148.683090	28.456987
211.245071	147.920914	29.651438
145.043427	149.176010	29.534609
148.371964	149.604385	28.766314
152.004288	150.048340	28.106499
205.844131	149.863083	28.523750
209.519852	149.154861	29.592466
146.692963	150.384933	29.493998
150.168945	150.746552	28.899275
153.879135	151.285080	28.119850
204.051086	151.137634	28.582167
207.718994	150.407730	29.617502
148.472672	151.686752	29.606379
151.985916	151.878693	29.022224
155.654404	152.535172	28.030281
198.802063	152.613037	28.158236
202.400986	152.183548	28.813601
205.973221	151.613876	29.676476
153.781235	152.996918	29.160196
157.461929	153.846436	28.045860
193.372803	153.958832	27.999125
197.013443	153.645050	28.519854
200.727539	153.285660	29.026121
204.204636	152.813309	29.713194
155.665527	154.271500	29.159086
159.225525	155.161621	28.153788
191.581406	155.106552	28.304001
195.278244	154.647018	28.758524
198.888306	154.342148	29.364370
157.544830	155.561066	29.359919
161.131531	156.343826	28.418047
168.206436	156.675400	28.006912
171.775864	156.318237	28.356293
175.445450	156.260941	28.455317
179.044937	156.254272	28.448084
182.660568	156.410034	28.241686
186.156021	156.403915	28.243912
189.786667	156.137985	28.616102
193.483505	155.692368	29.149073
197.119690	155.354675	29.603037
159.263901	156.757751	29.538506
162.792740	157.358032	28.744614
166.433945	157.529373	28.568258
170.069046	157.333542	28.746286
173.665726	157.226181	29.067286
177.245743	157.213943	29.067286
180.774582	157.190598	28.946564
184.340134	157.354126	28.741274
188.003601	157.185013	28.968819
191.650391	156.858444	29.348795
164.594147	158.412842	29.403315
168.270416	158.354996	29.501230
171.891037	158.124100	29.617506
175.445450	158.149704	29.662567
179.031052	158.067917	29.579117
182.591019	158.145798	29.239195
186.242798	158.165817	29.270906
189.861206	157.903793	29.660902
184.375183	159.201721	29.693720
192.255661	82.874252	30.608337
195.251678	82.282036	30.607780
198.534317	82.661736	30.338358
190.159714	83.613541	30.832859
193.543015	82.444763	30.613621
196.934448	82.342117	30.590256
200.591248	83.333778	30.622248
187.854584	84.512413	30.347416
202.607635	84.418953	30.816166
205.275574	85.643135	30.542135
182.943405	86.348328	30.837629
185.645309	85.331581	30.566610
204.036896	84.922401	30.581911
207.220520	86.483757	30.586639
177.870529	88.121605	30.597208
180.722672	87.320633	30.334063
184.376862	85.774429	30.595263
209.441010	87.321114	30.813786
171.847656	89.890198	30.596931
175.926697	88.639557	30.577185
179.187103	87.707130	30.606947
211.634079	88.285789	30.357431
215.113235	89.482956	30.602774
166.374146	90.719688	30.523495
170.310959	89.940498	30.869097
173.643921	89.417030	30.610703
213.818100	88.966675	30.624472
216.591965	89.931923	30.810446
160.978241	92.109970	30.528503
164.599152	91.100212	30.548534
167.953369	90.557564	30.311174
218.729980	90.857658	30.430305
155.561493	93.464363	30.509312
159.434296	92.483116	30.788513
162.223053	91.671021	30.570505
180.843567	93.519440	30.599436
184.446121	93.528618	30.605278
220.589249	92.109962	30.433090
154.065826	93.857887	30.829996
157.141571	93.051521	30.299253
179.275894	93.869339	30.849073
182.644012	93.521523	30.601940
186.055405	93.834534	30.483799
222.417908	93.320000	30.419739
148.709274	95.448219	30.917740
151.730179	94.706223	30.402252
173.961319	95.472061	30.918215
176.988892	94.514534	30.343599
188.084427	95.112038	30.738440
224.218216	94.630714	30.473150
146.620087	96.021568	30.574953
150.274094	95.216827	30.727112
168.587616	96.827286	30.884359
171.674789	96.107231	30.434679
175.506104	95.095825	30.692898
189.585495	96.217392	29.942181
225.946762	95.998749	30.491507
141.554962	97.957443	30.928701
144.600204	96.998009	30.358858
166.515182	97.491394	30.579966
170.130249	96.430191	30.691231
188.221756	97.353745	30.733673
227.355392	97.587639	30.757433
139.491760	98.728691	30.650061
143.084015	97.310585	30.631977
161.266861	98.992714	30.823795
164.381699	98.344177	30.324051
186.666260	99.314583	30.842396
228.508133	99.187660	30.796930
137.506775	99.750671	30.514313
155.941788	100.531532	30.850979
158.974609	99.688438	30.330729
162.769928	98.634109	30.520157
209.771896	100.673637	31.295410
213.171082	100.251373	31.299858
216.336960	101.169662	31.190594
228.444412	100.157906	29.712357
135.445938	100.861511	30.197683
153.855774	101.365150	30.557154
157.419922	99.943436	30.570229
185.428345	100.742615	30.486502
207.964905	101.488106	30.723497
211.503189	100.965157	30.131002
214.952469	101.295052	30.239487
217.525955	102.045555	31.184589
229.353195	100.931602	30.574404
133.596268	102.043884	30.359100
151.944763	102.372681	30.431978
184.004105	102.230812	30.421961
206.029404	102.511200	30.581078
216.613113	102.197426	29.915144
230.574341	102.882843	30.784697
131.842331	103.373131	30.180994
146.637329	105.049759	30.596931
149.880905	103.432251	30.165257
182.709274	104.093666	30.736053
204.229660	103.773529	30.548254
218.286850	103.891876	30.736713
230.119263	103.807190	29.833363
130.122528	104.758240	30.463135
145.178131	105.520897	30.841440
147.823441	104.429443	30.504858
202.556763	105.132652	30.627256
231.214355	104.696892	30.542929
128.430710	106.085106	30.473145
143.196411	106.663124	30.715706
181.818283	105.823631	30.414732
200.869949	106.559639	30.823645
218.651947	106.346153	30.606951
232.223328	106.780525	30.859800
126.731667	107.488739	30.556595
141.357712	107.782478	30.701799
180.802414	107.490959	30.532114
199.152802	108.171272	30.904865
231.899261	107.688446	29.811668
125.162254	109.002525	30.667305
139.546844	109.084862	30.761887
179.754837	109.291260	30.724607
197.594025	109.381836	31.175907
199.751724	108.906830	29.715696
218.658630	108.917679	30.592760
232.743774	108.989029	30.799297
124.036781	110.535774	30.709032
137.886505	110.711975	30.847166
180.113388	110.154411	29.759090
198.716934	109.735207	29.897898
232.102875	110.139389	29.822514
136.120377	112.060692	31.410574
138.609421	111.603104	29.784962
178.944000	111.124939	30.557230
196.955917	111.022896	30.544355
218.604401	111.479179	30.663275
232.866440	111.457489	30.788866
123.098160	112.260330	30.399395
137.700043	112.781067	30.071316
177.866089	113.115501	30.689003
195.307724	112.696022	30.705694
232.113708	112.715500	29.806660
121.794914	114.355179	30.885311
135.829330	113.984665	30.883406
178.064697	114.052368	29.612217
194.172256	114.423439	30.819189
217.981689	113.616760	30.707361
232.884796	113.989784	30.793039
122.350807	115.291611	29.695671
134.880035	115.165596	31.176907
137.558899	115.260254	29.881046
177.096191	114.894981	30.513836
194.533569	115.395081	29.856728
216.973007	115.613594	30.541498
232.113708	115.264069	29.809998
121.415337	116.297905	30.462816
135.707733	116.515335	30.813782
176.037399	116.867989	30.676210
193.396622	116.237328	30.645449
215.315750	117.014854	29.781624
232.863922	116.554619	30.826839
120.635574	117.843689	30.964947
134.827454	117.841019	31.322948
137.575592	117.810486	30.012655
176.479965	117.795952	29.834198
192.208298	118.269707	31.141859
216.644287	117.420982	31.373299
232.067810	117.768402	29.761595
121.143997	119.493324	30.296865
135.824554	119.105644	31.039337
138.560181	119.010147	29.757420
175.428482	119.049377	30.575237
192.847900	119.152023	30.174671
214.942047	118.739883	30.720320
232.402466	118.762299	30.741301
120.295433	120.314476	31.342144
137.941818	120.240089	30.355518
174.344482	120.188461	31.276218
192.052612	120.388336	30.924889
213.294571	120.455788	30.494844
231.539139	120.726006	30.245365
121.504990	121.356880	30.578217
136.045822	121.171783	31.445061
139.540710	121.883339	30.193869
174.682724	121.197937	30.351870
193.383362	122.032440	29.988579
211.623123	122.037361	30.400822
232.092026	121.609627	31.452297
122.918396	123.321541	30.186237
137.666992	122.475830	31.122946
141.285950	123.310890	30.076479
173.777252	123.219490	30.642591
191.892944	122.562622	31.218079
209.628342	123.319244	29.973001
212.379410	122.972366	31.494022
231.217728	122.656326	30.647364
122.185585	124.314255	31.272045
139.392166	123.717018	30.905418
142.960510	124.520363	30.037537
193.438293	124.227043	30.505970
207.860855	124.570992	29.925714
211.336838	123.758179	31.339914
230.305069	124.626625	30.351866
123.347084	125.154121	30.713169
141.078415	125.062782	30.868147
144.754135	125.791039	30.021959
173.082153	125.139565	30.492060
192.504913	125.490891	31.401394
195.403992	125.802727	30.263968
205.999924	125.727608	30.030306
209.687881	125.014946	31.142418
230.670868	125.630249	31.272879
124.724258	127.108284	30.292101
142.824768	126.392433	30.810843
146.608948	127.027222	30.041433
172.208862	127.213669	30.796139
193.487381	126.349586	31.180803
197.029587	126.808022	30.368002
200.643539	126.980469	30.106522
204.180161	126.776855	30.416399
207.864197	126.234993	31.171904
229.542023	126.485023	30.572018
124.037338	128.148773	31.352989
144.598282	127.943253	30.893419
148.373093	128.340714	30.031418
195.222610	127.571312	31.176355
198.844894	127.856140	30.904310
202.512817	127.789391	30.890398
206.051086	127.388832	31.445618
228.107162	128.477325	30.140459
125.150558	128.988541	30.697906
143.945221	129.236145	31.517387
146.705750	129.073959	30.759108
150.158936	129.618607	30.033087
171.396439	128.989395	30.550476
197.029007	128.564346	31.457863
200.707520	128.567139	31.435049
228.605469	129.432251	31.424761
126.711792	130.894531	30.407499
145.074570	130.053116	31.497919
148.468796	130.335190	30.755211
151.940308	130.965500	29.970774
170.444565	130.728500	30.588308
227.505844	130.307526	30.724133
125.894943	131.848969	31.468988
128.463547	132.289032	29.797201
146.709091	131.243668	31.461754
150.047348	131.832031	30.846209
153.767868	132.221710	29.885101
226.045700	132.242126	30.399393
126.846275	132.765244	31.180807
148.369202	132.396957	31.489014
151.835083	133.133865	30.810444
155.611557	133.564697	29.952974
169.056503	132.257874	30.655067
224.866913	133.039795	29.902626
128.734161	134.021286	30.577738
150.255173	133.718246	31.507929
153.695557	134.171097	30.702913
157.382385	134.682938	30.197203
161.048065	134.704086	29.955755
164.539062	134.670151	30.058121
167.553299	133.675964	30.856461
225.463943	133.890640	31.099421
130.363602	135.943985	30.459002
152.154526	135.056793	31.512938
155.475266	135.314926	30.833097
159.241653	135.550827	30.445330
162.898987	135.471268	30.454788
166.168015	134.992264	31.012793
224.025711	135.619797	30.757988
129.547562	136.910233	31.363007
132.319504	137.227066	30.038649
157.370132	136.449844	31.061190
161.045288	136.517181	30.984419
164.683151	136.325241	31.243673
222.368164	137.364548	30.427048
130.552017	137.798416	31.224203
133.926743	138.568375	29.906242
159.202713	137.435120	31.416693
220.633743	138.670181	29.854502
132.151489	139.051285	30.962166
134.982666	139.407883	29.791637
222.103027	139.017334	31.324896
134.099762	140.373062	30.605394
220.398132	140.711380	30.654514
135.806442	142.288116	30.648314
218.506897	142.269669	30.237818
134.914246	143.259125	31.468985
137.769363	143.544785	30.316818
216.852356	143.613770	29.965769
220.175888	142.699173	31.476219
136.012436	144.118927	31.341585
139.526260	144.868866	30.145468
215.165543	144.961227	29.861176
218.660446	144.094467	31.147982
137.681442	145.384033	31.156883
141.247559	146.190170	30.000818
213.416992	146.294189	29.742121
216.883484	145.505325	30.938242
139.370468	146.722000	31.019472
142.858688	147.505325	29.821123
212.438675	146.999359	29.729048
215.267334	146.818832	30.942694
141.082321	148.051086	30.815849
213.280685	148.002792	30.628763
143.089447	149.606750	30.508890
211.458679	149.563217	30.665640
142.121002	150.842224	31.429768
145.030075	151.166016	30.310143
209.607742	150.843338	30.714592
143.194733	151.671188	31.308207
146.746384	152.387741	30.309029
150.240158	152.713196	29.842262
207.841415	152.126251	30.657293
144.904907	152.930161	31.168570
148.355835	153.390244	30.602770
152.165634	153.776337	30.052000
202.379318	153.969391	29.912361
206.038864	153.351303	30.735182
146.581131	154.145752	31.395552
150.128326	154.461197	30.902079
154.000427	154.870102	30.242270
200.708618	155.057022	30.098175
204.363724	154.514038	30.761887
151.949219	155.459824	31.220863
155.715042	155.985001	30.366331
195.202026	156.495712	29.912918
198.829880	156.171371	30.399712
202.546204	155.706833	30.984415
153.852982	156.633682	31.437830
157.508667	157.259552	30.544359
161.036942	157.955521	29.741011
193.453445	157.595581	30.109304
197.201492	157.155533	30.587196
200.690811	156.889053	31.119608
159.380188	158.394485	30.874268
162.857269	158.895172	30.125992
166.426163	159.099350	29.875084
170.065155	158.944687	30.015841
173.639603	158.931900	30.111526
177.238525	158.926895	30.088715
180.850784	159.010345	29.891775
187.973022	158.999222	29.936285
191.507401	158.769455	30.395815
195.363907	158.205887	30.884836
198.957275	157.938293	31.374968
161.031921	159.499359	31.254242
164.600815	159.863754	30.877600
168.311584	159.920502	30.662859
171.921082	159.990036	30.729063
175.434326	160.126907	30.740183
179.108353	160.082397	30.544355
182.631638	160.168625	30.245605
186.182175	160.135803	30.289000
189.776657	159.797012	30.640602
193.411179	159.439835	31.046173
166.436172	160.606476	31.381643
170.079605	160.603683	31.180250
173.644592	160.753891	31.109594
177.315857	160.845703	31.036713
180.906433	161.013718	30.787476
184.451965	161.184494	30.614454
188.107651	160.860153	30.915991
191.612000	160.535812	31.352713
175.429886	161.769760	31.486231
179.061081	161.800919	31.247007
182.666687	161.952255	31.022802
186.273972	161.868790	31.109594
180.934265	162.989258	31.536858
184.451965	163.083817	31.513494
193.718506	82.642654	32.160427
196.770401	82.495308	32.151371
188.642822	84.082619	32.371922
191.424347	83.282127	32.683071
195.247925	82.280373	32.412807
199.044067	83.174828	32.654457
186.472656	84.701729	32.625370
189.926300	83.655624	32.399460
201.261063	84.013634	32.394173
203.952850	85.174301	32.176167
181.562912	86.838692	32.411419
184.266708	85.778969	32.149464
202.478058	84.498474	32.374424
206.220795	86.058876	32.609158
179.144119	87.586967	32.404465
182.835541	86.215042	32.395287
208.290359	87.134666	32.398621
211.154343	87.844231	32.624416
170.029266	89.760010	32.391113
173.542511	89.309380	32.338539
176.866333	88.559448	32.403072
209.451141	87.512695	32.401127
213.292358	88.302971	32.321846
216.932465	89.493805	32.241734
164.585800	90.767250	32.349388
168.489365	90.012985	32.642059
171.841797	89.492149	32.387775
174.896347	89.042908	32.377483
215.416519	88.909538	32.070782
218.438843	89.920952	32.647781
159.164886	92.057396	32.321014
163.061768	91.100212	32.620602
166.183746	90.490318	32.146599
220.419571	91.149727	32.428665
153.675522	93.309151	32.322685
157.600800	92.409195	32.573391
160.739944	91.712036	32.093670
179.047729	93.515266	32.401127
182.646088	93.526947	32.406967
222.290512	92.339180	32.417538
152.268082	93.865524	32.638245
155.287552	93.071548	32.107502
177.833237	94.018761	32.410309
180.846909	93.521103	32.402794
184.253342	93.796860	32.237682
224.080811	93.548096	32.388054
146.926300	95.372871	32.684975
150.033981	94.587013	32.157570
172.413452	95.547569	32.445354
175.455200	94.656860	32.434086
186.277847	94.807640	32.459820
225.755920	94.917786	32.423660
144.768051	96.039368	32.330746
148.492432	95.012360	32.439514
167.085968	97.014061	32.452030
170.049286	96.138947	32.461624
173.762833	95.210983	32.520458
187.200150	96.200027	32.237400
227.240234	96.359810	32.453701
140.065353	98.064972	32.421432
142.743790	97.085747	32.109406
164.892426	97.668007	32.608677
168.395309	96.561203	32.458710
186.745178	97.889732	32.445354
228.554855	97.896965	32.362461
137.892715	98.901161	32.683548
141.238098	97.429085	32.392780
159.471512	99.080925	32.635384
162.573456	98.450989	32.121803
185.548508	99.421875	32.672894
213.161621	99.587120	33.058990
135.720932	100.046638	32.336872
154.201736	100.673157	32.707867
157.195938	99.781433	32.144218
161.001617	98.752609	32.385269
185.291473	100.093651	31.482338
208.289383	100.356041	32.833279
211.202515	99.911133	32.205730
215.126114	100.212990	32.263908
229.853348	99.579323	32.448135
133.966797	101.133720	32.256203
152.162292	101.448051	32.484295
155.681656	100.062775	32.431171
184.361603	100.937332	32.176167
206.185181	101.459175	32.535480
209.825012	99.800743	32.563019
217.129944	101.190468	32.477062
230.855301	101.515358	32.281239
132.048569	102.309258	32.293476
150.209000	102.499535	32.332973
182.850281	102.595207	32.409752
204.174576	102.481712	32.322403
218.654312	102.460030	32.408077
130.295547	103.584373	32.304047
144.917419	105.254211	32.378593
148.236237	103.459770	32.246742
181.555115	104.112892	32.433670
202.364822	103.682838	32.261765
219.633469	104.228615	32.629505
231.802734	103.425262	32.418095
128.493027	104.965752	32.428665
143.714905	105.695107	32.428104
146.286850	104.535713	32.102257
181.651367	104.947945	31.423920
200.703613	105.132652	32.399734
219.383392	105.151573	31.591660
232.813751	105.514702	32.551456
126.987022	106.450050	32.410305
141.600754	106.640556	32.605339
180.707916	105.928604	32.256279
199.070206	106.637543	32.592785
220.141937	106.422516	32.631031
125.423729	107.833672	32.421432
139.633072	107.971077	32.454258
179.171005	107.960030	32.545727
197.572556	108.216408	32.488194
219.458496	107.615028	31.636723
233.393295	107.379692	32.433117
124.050697	109.336876	32.396954
137.829987	109.208366	32.511559
178.060516	108.792503	33.299049
220.174500	108.875122	32.593895
233.883987	109.370262	32.767471
136.195480	110.523537	32.600574
178.309464	109.753021	32.322956
196.307449	109.621162	32.350220
219.423462	110.172760	31.594162
233.564087	110.316307	31.706818
122.682678	110.974159	32.443684
134.887527	111.903809	32.586109
177.164841	111.740562	32.476109
194.988388	111.238426	32.299595
220.031540	111.034340	32.727894
234.154663	111.463516	32.591034
121.538841	112.732750	32.394169
135.114532	112.828156	31.542423
176.264664	112.563622	33.275684
193.478653	113.081490	32.569099
219.310791	113.122185	32.278454
233.656708	112.754723	31.791103
120.486809	114.500221	32.662327
133.960815	113.895493	32.366493
176.415161	113.580048	32.187771
192.279587	113.902992	33.160522
219.582001	114.015656	33.306561
234.274826	113.984184	32.604862
120.857887	115.439316	31.590824
132.794601	115.627914	32.878960
175.332275	115.502022	32.398384
192.681274	114.852379	32.254528
218.726639	115.277832	32.351471
233.633331	115.213165	31.781925
119.977127	116.527267	32.292519
134.095947	116.502464	31.721247
174.243500	116.363945	33.064552
191.684326	116.512482	32.438679
217.601730	116.429863	31.721840
234.174377	116.253784	32.724079
132.753891	117.206787	32.882301
174.628769	117.334190	32.173862
190.799744	118.211525	32.755230
218.136520	117.323624	32.858547
233.541809	118.121956	32.362461
119.543961	119.116966	32.285965
133.881546	119.129898	32.191669
173.691422	119.298286	32.508060
191.212280	119.241310	31.720169
216.787827	119.145622	32.518787
233.869507	119.053543	33.358303
118.542984	120.317818	33.191402
132.881393	120.422119	33.092930
135.026062	120.343681	31.693470
190.536453	120.352623	32.495186
215.131836	120.826622	32.268200
233.100098	120.361618	32.311001
119.628670	121.595856	32.392780
134.204681	121.346397	32.470390
173.353790	121.210976	32.065056
191.188080	121.648010	31.678444
213.383606	122.127571	31.656471
121.290718	123.309227	31.639227
135.797379	123.250969	32.319221
172.232224	123.301994	32.672577
190.575546	123.016357	32.487553
214.531769	122.548264	32.917686
232.617294	122.458908	32.653980
119.819763	123.760979	33.092930
134.958466	124.280029	33.206421
137.718155	124.528709	31.915724
172.823166	124.174881	31.572466
191.750534	124.714531	31.647570
213.052261	123.796974	32.570049
231.588242	124.545639	32.074600
121.414917	125.462524	32.371918
135.852219	125.022179	33.035069
139.336548	125.812172	31.782204
171.948502	125.256630	32.242928
190.395950	125.049767	32.875626
211.428635	125.428864	32.462044
232.117889	125.448326	33.279858
123.064308	127.110107	31.683731
137.528458	126.358498	32.790279
141.147964	127.161293	31.667044
171.092117	127.282013	32.627274
191.644135	126.771027	32.305576
209.705673	126.653908	32.454811
231.123779	126.454506	32.538105
121.614510	127.620262	33.182499
139.237534	127.679237	32.633396
142.828110	128.394119	31.585815
171.456268	128.292313	31.575798
190.641449	127.999405	33.176380
193.526901	128.339050	31.973585
204.237473	128.466446	31.641447
207.880905	127.989677	32.518787
229.783325	128.417252	32.065063
123.261665	129.249908	32.528389
140.992752	129.323746	32.589123
170.555588	129.276566	32.251507
191.654846	128.905396	32.913235
195.219833	129.409439	32.157730
198.841553	129.455063	32.005852
202.400986	129.435593	32.089298
206.105637	129.170212	32.735203
124.933594	130.991638	31.764402
143.253067	130.490143	32.184273
193.398941	130.117096	32.927700
197.029007	130.376343	32.603359
200.705826	130.362991	32.588894
204.367081	130.179413	32.909336
229.249237	130.256500	32.606773
123.432594	131.368286	33.170815
141.452286	131.378860	33.228676
145.058456	132.125473	32.214474
169.452621	131.347717	32.445354
195.217590	131.209732	33.198078
198.841553	131.264816	33.163029
202.478882	131.191940	33.195290
227.799591	132.106705	32.250084
125.117661	132.688461	32.519985
143.130753	132.686264	33.084026
146.830368	133.376663	32.215588
149.343628	133.095718	31.475662
168.273193	133.019485	32.356339
226.664429	133.061508	31.620865
126.712761	134.703217	32.221947
144.943848	133.999756	33.064556
148.688309	134.357956	32.154236
151.146149	134.367493	31.479834
167.116013	134.819794	32.419209
227.269318	133.983612	32.752209
125.880753	135.645950	33.240635
128.477448	136.021469	31.635885
146.704086	135.214783	33.092373
150.515625	135.605423	32.199055
153.813492	136.183945	31.573578
225.815994	135.631485	32.450363
126.885780	136.523285	32.963856
148.602310	136.489914	33.151901
152.115005	136.916626	32.443130
155.620468	137.261002	31.772192
162.737106	137.323303	31.530741
165.723495	136.315231	32.528805
224.279892	137.237701	32.219559
128.748459	137.823288	32.308739
150.296906	137.627060	33.222000
153.767319	137.987000	32.568302
157.417984	138.435425	32.060371
160.972961	138.389786	31.952444
164.224167	137.653198	32.725750
223.035995	138.192017	31.640059
224.947845	138.192856	33.289871
130.341171	139.752655	32.222424
155.543686	139.070755	32.754673
159.211060	139.281601	32.499317
162.698715	138.919434	32.881519
223.778229	139.113190	32.682117
129.559235	140.756439	33.135490
132.308914	141.109726	31.793890
157.448044	140.158386	33.235909
160.898422	140.073807	33.270405
222.272797	140.962448	32.398861
130.513077	141.596497	32.968311
133.816605	142.380936	31.600840
221.211792	141.839630	31.784428
132.152603	142.931137	32.690693
221.813583	142.816940	32.896221
134.094757	144.545090	32.439514
220.309402	144.407120	32.555508
136.060837	146.107819	32.182209
218.743896	145.890305	32.247856
134.260544	146.653580	33.209759
137.804398	147.380722	31.977476
217.036407	147.491104	32.179985
135.975723	147.938171	33.007252
139.498444	148.695328	31.817253
215.065964	148.713699	31.861757
217.800339	148.451401	33.257324
137.594650	149.243881	32.879852
141.049500	150.028870	31.654249
213.337418	150.015518	31.772745
216.773911	149.231659	33.106838
139.299271	150.517349	32.696819
211.568283	151.307877	31.707098
215.190018	150.511230	32.941608
141.305099	151.848633	32.312073
209.751282	152.569656	31.721563
213.339111	151.783554	32.769699
143.086807	153.468689	32.267883
207.899246	153.901520	31.732132
211.632812	153.123764	32.749668
144.767487	154.665359	32.442574
148.408142	155.202774	31.685400
206.136246	155.148819	31.729353
209.883133	154.329895	32.731312
146.498795	155.848694	32.588886
150.257950	156.194168	32.065933
204.217972	156.470673	31.814470
208.051697	155.693466	32.752453
148.247360	156.839523	32.911564
151.957016	157.247314	32.335201
155.710037	157.801437	31.631994
202.463303	157.628403	31.920172
206.204651	157.046494	32.752453
150.107742	157.829254	33.174152
153.699448	158.226471	32.633953
157.461380	158.808411	31.929071
197.056274	159.047623	31.605288
200.607925	158.772232	32.188328
204.292526	158.291000	32.872059
155.564835	159.364182	32.954403
159.241104	159.987808	32.193890
162.821655	160.357224	31.667044
195.230408	160.194229	31.782204
199.007324	159.731918	32.345776
202.474426	159.418137	33.008366
161.075882	160.959747	32.721851
164.632538	161.249039	32.299595
168.287643	161.427628	31.800562
171.884354	161.708572	31.631994
189.815598	161.680191	31.559668
193.297134	161.351974	32.068157
197.266037	160.770584	32.656208
200.679138	160.480179	33.211987
162.840591	161.750290	33.299328
166.443954	161.975052	32.717960
170.095749	162.413437	32.174419
173.637375	162.688278	31.966349
177.309738	162.876312	31.751604
188.014725	162.860184	31.781088
191.500168	162.523056	32.258423
195.278793	162.029572	32.852036
168.234802	163.133331	33.008923
171.833740	163.339188	32.625050
175.457703	163.567276	32.209469
179.120041	163.881058	31.965792
182.643311	164.027374	31.901817
186.284546	163.956726	32.058147
189.919617	163.498856	32.518234
193.444016	163.101059	33.048981
173.591751	164.483017	32.951061
177.182327	164.536972	32.533253
180.851364	164.672729	32.263432
184.426376	164.748398	32.301262
188.143250	164.582596	32.666218
191.623123	164.332245	33.223663
175.406509	165.467712	33.232571
178.958176	165.801529	32.919907
182.645554	165.913345	32.897099
186.285080	165.751450	33.022831
195.264328	82.737946	33.660389
189.927567	83.740746	34.188213
193.193497	83.212509	34.446491
197.310211	83.154808	34.438862
200.097778	83.949097	34.176113
185.094528	85.309891	34.191692
187.629196	84.419746	34.201702
191.595306	83.441154	34.206154
198.862991	83.287613	34.163593
202.363724	84.743401	34.126877
182.747482	86.107391	34.194054
186.368805	84.837280	34.201981
204.701981	85.796120	34.136059
207.264465	86.714073	34.203930
177.472183	88.117706	34.552055
180.610458	87.227020	34.201702
205.965439	86.243423	34.197807
209.545425	87.359138	34.205318
212.826218	87.910034	34.430752
168.256775	89.627327	34.222008
171.818436	89.310211	34.166935
175.554489	88.515648	34.342537
179.298096	87.675423	34.201981
211.080933	87.858185	34.201981
215.149414	88.404785	34.107128
218.669067	89.669052	34.229519
162.833344	90.768921	34.197807
166.700195	89.944313	34.469856
170.029678	89.374054	34.189880
173.382889	89.166077	33.931961
217.191879	89.056877	33.890472
219.913284	90.264046	34.226738
157.348999	92.056564	34.130219
161.256851	91.110237	34.411678
164.395050	90.603333	33.952946
221.861252	91.247086	34.502281
151.993164	93.475220	34.191135
155.801117	92.492172	34.387363
158.949341	91.709175	33.906212
180.846924	93.521942	34.205322
223.594589	92.655182	34.323540
150.524200	93.986641	34.490841
153.557495	93.123528	33.900013
175.382599	94.458267	34.141060
179.038116	93.548645	34.204483
182.461304	93.697678	34.004921
225.470123	93.797325	34.486549
145.429520	95.426292	34.207821
148.242920	94.607506	33.979649
169.963333	96.068848	34.211163
173.597168	94.955627	34.204483
176.610413	94.080513	34.164429
184.596603	94.607361	34.247879
227.194046	95.247704	34.253437
143.253067	96.166832	34.394032
146.649017	94.911392	34.206154
168.301849	96.499878	34.225349
171.307434	95.698334	34.253998
186.005341	96.400978	33.940548
140.984650	97.217354	33.931961
163.173340	97.952682	34.437428
165.941040	97.121986	34.217281
228.550400	96.709755	34.218388
136.349045	99.312279	34.169437
138.805801	98.146759	34.130497
157.713791	99.255447	34.429325
160.895401	98.633629	33.915268
164.655884	97.600998	34.217003
185.508987	98.276939	34.144962
208.007156	99.618813	34.956093
211.674606	99.163887	34.479393
214.367203	99.578766	34.313526
229.875595	98.307533	34.221729
134.296234	100.174355	34.565228
137.647247	98.660812	34.199482
152.495071	100.811928	34.562366
155.414383	99.892532	33.955330
159.295898	98.980423	34.206150
184.326782	99.947060	34.257339
206.252487	100.416046	34.403652
209.740158	99.574310	33.693214
213.155502	99.176529	34.304623
216.256531	100.231903	34.243984
231.180984	100.223000	34.255272
132.227158	101.398537	34.218952
150.540024	101.607170	34.253441
153.975937	100.221329	34.319649
182.802979	101.412445	34.336895
204.342041	101.354584	34.330215
218.160370	101.468559	34.515156
130.623779	102.770454	34.185013
148.538086	102.695511	34.473194
181.551254	102.927895	34.296833
202.397659	102.557930	34.203930
219.624557	103.134857	34.209492
232.045288	102.061684	34.047600
128.821808	104.050591	34.262344
146.590607	103.884789	34.137726
200.632950	103.775200	34.231190
232.949890	103.886467	34.178341
127.230141	105.340729	34.225067
141.305695	106.384964	34.201145
144.542496	104.893356	33.893337
180.321167	104.577423	34.226177
199.006821	105.344055	34.349689
220.543091	104.991905	34.274586
233.693710	105.705688	34.511581
125.560577	106.743248	34.233971
140.118759	107.107086	34.221172
142.534363	105.790802	34.241756
179.060532	106.277039	34.221729
197.312607	106.948608	34.482258
221.076599	106.801094	34.497673
233.634186	106.536011	33.451763
138.329025	108.110146	34.173328
177.931152	108.020592	34.316311
196.142517	107.625870	35.102409
220.860458	107.738525	33.516857
234.265778	107.771675	34.143211
124.121910	108.199730	34.163311
136.603836	109.485420	34.200035
196.169479	108.441170	33.997528
221.158859	108.861771	34.338245
122.760002	109.763031	34.139393
134.913681	110.882385	34.334667
177.161041	109.786392	34.054512
194.785889	109.865395	33.950241
220.800369	109.990005	33.465118
234.900406	110.184166	34.292385
121.374168	111.430367	34.237309
175.755264	111.737228	34.466042
193.393921	111.323547	34.134945
220.963120	110.894051	34.472637
120.133545	113.157234	34.176670
133.570145	112.398933	34.155525
192.146072	113.050964	34.223957
220.443558	112.946053	33.998722
235.035049	112.823433	34.271244
132.354950	114.180649	34.288651
175.117691	113.593636	33.879978
119.123550	115.279800	34.300575
131.118103	115.094666	35.146637
173.791092	115.584511	34.341106
191.321808	114.843948	34.026855
220.023026	115.100082	34.395584
235.012772	115.142792	34.317425
118.288445	116.257126	34.968056
131.653000	116.470520	34.128902
172.611221	116.514984	35.062355
190.251755	116.787865	34.142174
219.171432	116.313034	33.490147
118.659813	117.292458	33.940228
130.920319	117.697479	34.950531
173.232208	117.358421	33.901920
219.457657	117.280212	34.517143
234.703537	117.862465	34.144642
117.829842	119.330246	34.323940
131.890839	119.103195	33.859001
172.110611	119.390320	34.463657
189.553146	119.057487	34.337765
218.410095	119.028229	34.253994
116.967438	120.412949	35.059013
131.053833	120.397087	34.842049
172.729706	120.266075	33.274853
188.666199	120.238533	34.958878
217.103271	120.594872	34.018112
234.182831	120.229591	34.282452
117.880798	121.585846	34.216587
132.177063	121.640076	34.105183
171.809723	121.295845	34.024944
189.194550	121.636795	34.132240
215.867065	122.182091	33.955807
233.431396	121.305038	33.359138
118.915176	122.762909	33.412544
131.314209	122.835510	35.057350
133.881119	123.302544	33.441193
170.963074	123.360413	34.381954
188.178299	123.420494	35.018963
216.193924	123.015762	34.922993
233.739868	122.292809	34.451500
118.155525	123.803642	34.466045
132.241608	123.828835	34.739124
171.452087	124.433578	33.394184
189.442825	124.284477	33.716579
215.045044	123.863258	34.274822
233.029770	124.386848	33.980125
119.577995	125.731590	34.136536
134.097870	125.147438	34.169910
170.510284	125.477425	34.072163
188.069168	125.530357	34.924305
213.318497	125.560707	34.102676
120.644257	126.659195	33.552742
135.728241	127.043900	34.112213
189.716721	126.870804	33.607220
211.662231	127.207939	33.997288
232.602509	126.263756	34.538525
119.957100	127.554138	34.582397
134.880035	127.933472	34.998093
137.606918	128.279526	33.608650
169.750168	128.036240	34.301052
188.146011	127.633614	34.876541
209.693985	128.393570	33.707676
231.381302	128.342865	34.069298
121.285156	129.573639	34.126518
135.941803	128.864792	34.793644
139.307617	129.679260	33.461777
168.785019	129.100113	35.055679
189.799866	129.302063	34.166100
207.844177	129.698730	33.875690
211.236694	128.782455	35.086834
230.233597	129.290375	33.410042
120.515732	130.497070	35.174179
122.499352	130.431137	33.571934
137.606339	130.167160	34.544407
140.370209	130.527954	33.338272
169.195038	130.026428	33.986401
188.919052	130.622253	34.946358
191.695999	130.865921	33.779999
205.927048	130.921005	33.882366
209.616089	130.045334	35.004494
230.854813	130.133957	34.538528
121.737686	131.401901	34.531368
139.484467	131.474869	34.197571
168.177979	132.034698	34.298191
189.846741	131.420578	34.790302
193.425095	131.999176	33.902397
197.040710	132.134918	33.721031
200.645203	132.133255	33.723812
204.189590	132.020309	34.059284
207.826370	131.410568	35.072369
229.461914	132.199692	34.116028
123.148727	133.389450	34.242397
141.117203	133.337967	34.219982
167.348846	133.058990	35.144970
191.604752	132.717407	34.720764
195.225937	132.957184	34.271801
198.841553	132.979431	34.262344
202.560654	132.884872	34.324657
206.013840	132.533249	35.026196
228.392670	133.065674	33.352463
124.921913	134.716324	33.514629
140.181610	134.286545	35.024803
143.253693	134.633972	34.005318
167.377487	133.821167	34.067627
193.422867	133.779449	34.906578
197.040710	133.806152	34.793083
200.752014	133.783890	34.786411
228.715088	133.938004	34.297398
123.351379	135.201431	34.874870
141.476212	135.255402	34.943855
145.187515	136.034271	33.956364
166.411148	135.515762	34.313530
227.568466	135.613129	34.230633
125.103836	136.547211	34.241444
143.173035	136.429276	34.982239
146.968353	137.232056	34.049267
165.324051	137.327744	34.279591
226.224991	137.340714	33.860432
126.717049	138.511398	33.955330
144.988358	137.728867	34.960545
148.777542	138.490494	34.076527
152.158951	138.833191	33.382221
226.835510	138.124420	35.018959
128.479111	139.810669	33.390015
146.855972	139.020126	35.001160
150.471039	139.582581	34.236195
153.885269	139.889664	33.643703
163.952698	138.938904	34.247883
225.559296	138.997787	34.466995
126.975899	140.259079	34.850391
148.485474	140.137253	35.054565
151.950882	140.533356	34.400311
155.661072	140.884415	33.906292
159.239441	141.001785	33.776669
162.465622	140.272995	34.399204
224.133514	140.952423	34.082649
128.762772	141.610016	34.162758
153.766769	141.552002	34.776394
157.470840	141.877457	34.513805
160.840012	141.479675	34.775845
223.040176	141.856323	33.423393
130.387894	143.610443	34.106972
223.567947	142.758774	34.663937
132.196548	144.913376	33.561920
222.140305	144.523956	34.271244
130.657166	145.385696	34.924938
133.236893	145.831879	33.395020
220.574234	146.211700	33.953423
132.430283	146.776291	34.461750
218.847946	147.538727	33.379444
221.259338	147.072800	35.094898
134.060822	148.442764	34.208935
220.266006	147.966537	34.869858
135.744919	149.945038	34.076923
218.509430	149.255493	34.329662
134.957642	150.893967	35.018124
137.768799	151.182159	33.702671
216.871826	150.916794	34.241203
135.996872	151.659500	34.879314
139.432236	152.517914	33.573601
215.146149	152.513870	34.166576
137.567413	153.002487	34.747467
141.172440	153.824753	33.481808
213.177750	153.733505	33.788906
139.436142	154.259811	34.652889
143.082352	155.184998	33.414494
211.329041	155.016403	33.722145
214.729370	154.171906	35.038986
141.215836	155.549393	34.685719
144.855957	156.401138	33.619778
209.667847	156.298218	33.728821
213.173294	155.448135	34.873756
143.110168	156.822281	34.798096
146.686844	157.513809	33.911301
207.801346	157.616165	33.743286
211.413620	156.751633	34.888779
144.867065	158.013947	34.929947
148.397568	158.600876	34.121033
152.062149	158.915771	33.575272
205.971558	158.874039	33.796688
209.632248	157.976669	34.851505
150.141678	159.537735	34.531055
153.755081	159.971146	33.890713
157.512009	160.487961	33.227558
204.132874	160.097977	34.000866
207.813034	159.399780	35.001713
151.965347	160.539139	34.824802
155.720047	160.924133	34.276810
159.334000	161.444870	33.662060
198.854355	161.616776	33.483475
202.443832	161.201736	34.154419
205.980453	160.529129	34.952755
157.419662	162.045151	34.715199
161.028030	162.344467	34.181679
164.565781	162.588135	33.656498
196.992859	162.639877	33.713795
200.723083	162.151978	34.447605
159.293945	162.867416	35.051785
162.813873	163.084396	34.829807
166.254807	163.628479	34.108795
170.074036	164.115829	33.396687
195.173645	163.890518	33.988071
198.932251	163.355331	34.699066
168.122971	164.729477	34.455952
171.861526	165.156174	33.672070
189.818359	165.425430	33.479580
193.456802	164.968140	34.217838
197.033493	164.337234	34.976120
170.018417	165.774261	34.795315
173.624573	166.108063	34.155525
177.266907	166.619339	33.603642
180.808533	166.681076	33.340500
184.441391	166.694427	33.359974
188.010300	166.522537	33.723812
191.711014	166.039078	34.444820
171.877121	166.682205	35.057346
175.227371	167.210709	34.418118
178.981522	167.408768	34.032578
182.643311	167.412674	33.940784
186.307907	167.396545	34.130497
189.987488	167.152298	34.625072
177.139481	168.272766	35.011730
180.810181	168.467484	34.904354
184.494797	168.409622	34.864304
188.150467	168.159256	35.007278
188.615585	84.070930	36.002003
191.604477	83.596802	36.017441
195.254166	83.318909	36.041641
198.760757	83.733246	35.995747
186.270752	84.725456	36.002003
189.921295	83.736572	35.976135
193.432037	83.510422	36.001171
197.091339	83.463692	36.042061
201.078598	84.441444	35.926342
203.651627	85.604744	35.964172
181.614090	86.810326	36.002003
184.036926	85.713226	36.002003
202.350372	85.045906	35.950264
205.780182	86.203362	35.744980
175.906662	88.232452	36.130936
179.194611	87.546913	36.002003
182.883087	86.183334	36.002003
208.040482	87.183777	36.246155
211.403458	87.836487	35.990738
214.586960	87.973061	35.992546
166.478455	89.788383	36.041225
169.987534	89.273491	35.943588
173.694656	88.573906	35.997555
177.500565	87.914093	36.010349
176.259933	88.364166	34.817013
209.495361	87.529381	35.986984
213.070374	87.886551	36.002003
216.681152	88.545212	36.211819
161.058365	90.713844	35.995327
164.892899	90.070206	36.249493
168.207535	89.430794	35.964451
171.546982	88.992989	35.705399
218.800781	89.534683	35.756424
222.030441	91.163651	36.050407
155.562317	92.291054	35.892685
159.467209	91.078758	36.212776
162.625443	90.639091	35.775494
220.959213	90.524414	36.106594
150.318329	93.678833	36.057915
153.998581	92.660027	36.219929
157.111053	91.710609	35.681080
179.046051	93.519440	36.007011
223.172302	91.818451	36.042057
225.782349	93.588707	36.070427
149.025116	94.149498	35.999779
151.766891	93.346214	35.721611
173.592590	94.752838	35.940247
177.482895	93.693848	36.223267
180.886124	93.570343	36.003254
224.787903	92.856575	36.043171
226.803513	94.462715	36.052071
146.622726	94.754921	36.032879
172.362808	95.239906	36.002560
175.200195	94.358597	35.748314
183.325394	94.324738	36.073215
141.478668	96.613174	36.231373
144.204468	95.484703	35.970848
166.992508	96.747017	36.014240
169.982941	95.833519	36.001587
184.666306	96.174477	35.959560
228.224380	95.804039	36.004230
139.393280	97.423523	35.944145
143.001404	95.877747	35.944420
161.693420	98.230202	36.004227
164.625427	97.325607	36.019112
168.296005	96.337563	36.022865
185.450043	97.394867	35.130783
229.646362	97.271645	35.947483
137.322372	98.456718	35.796001
155.960373	99.350822	36.279537
159.335953	98.835640	36.004505
163.044479	97.799606	36.001999
184.503693	98.438110	35.944302
206.798813	99.595451	36.176136
209.670197	99.159012	36.051655
213.198898	99.179871	36.041641
230.995483	98.780426	36.015354
132.864136	100.688103	35.987537
135.108414	99.379036	35.989208
151.082443	100.974609	36.112156
153.659546	100.004112	35.819843
157.578491	99.144821	36.014519
183.071152	100.317574	36.117725
204.683380	100.408974	36.463123
207.997452	99.269997	36.160561
211.431427	99.129791	36.027870
215.493774	99.806305	36.102699
218.461273	101.237755	35.996994
232.092590	100.545677	36.170017
131.124481	101.701180	36.003674
133.911163	99.915070	36.078777
149.415100	101.754601	36.003113
152.228485	100.447472	36.071266
181.587952	101.829140	36.038723
202.576782	101.472534	36.212299
